# .PCD v0.7 - Point Cloud Data file format
VERSION 0.7
FIELDS x y z normal_x normal_y normal_z curvature
SIZE 4 4 4 4 4 4 4
TYPE F F F F F F F
COUNT 1 1 1 1 1 1 1
WIDTH 779
HEIGHT 1
VIEWPOINT 0 0 0 1 0 0 0
POINTS 779
DATA ascii
0.056733839 0.063073598 2.3803267 0.99997759 -1.7453448e-06 -0.0066963034 0
0.062069744 0.063073605 2.380327 0.99878556 -1.2849024e-07 0.049269389 4.0060435e-09
0.064356558 0.063073605 2.3803267 -0.99956745 2.9554759e-08 0.0294096 3.9738617e-09
0.064356558 0.063073605 2.3803267 -0.99956745 2.9554759e-08 0.0294096 3.9738617e-09
0.068064131 0.062977575 2.3767025 -0 0 1 0
0.068064131 0.062977575 2.3767025 -0 0 1 0
0.069586359 0.062977575 2.3767025 -0 0 1 0
0.071760438 0.062881835 2.3730896 -9.8525297e-06 2.1433109e-16 1 0
0.071760438 0.062881835 2.3730896 -9.8525297e-06 2.1433109e-16 1 0
0.076436363 0.062977575 2.3767025 0.99158037 -2.1423961e-05 0.12949269 5.1188112e-09
0.077958576 0.062977575 2.3767025 1.3317146e-05 -4.2265543e-05 1 3.5742946e-09
0.077958576 0.062977575 2.3767025 1.3317146e-05 -4.2265543e-05 1 3.5742946e-09
0.08328636 0.062977567 2.3767025 -0.99929816 3.1653469e-06 0.037459321 5.0660613e-09
0.08328636 0.062977567 2.3767025 -0.99929816 3.1653469e-06 0.037459321 5.0660613e-09
0.085569695 0.062977567 2.3767025 0.98597145 6.1177275e-08 0.16691393 4.1591228e-09
0.086859785 0.063363455 2.3912656 9.2314735e-07 3.0600448e-17 -1 0
0.089511529 0.063073605 2.3803267 0.99951208 0 -0.031234752 0
0.090688661 0.063363463 2.3912656 -0 0 1 0
0.09560971 0.063073598 2.3803267 -0.99928975 -1.9449169e-06 0.037682079 3.745237e-09
0.10262665 0.063169926 2.3839619 -0 0 1 0
0.10262665 0.063169926 2.3839619 -0 0 1 0
0.10568038 0.063169926 2.3839619 0 0 1 0
0.10568038 0.063169926 2.3839619 0 0 1 0
0.10873413 0.063169926 2.3839619 0.99951208 -2.1188876e-16 -0.031234488 0
0.10966504 0.063266546 2.3876081 1 0 -0 0
0.10966504 0.063266546 2.3876081 1 0 -0 0
0.11501727 0.063266546 2.3876081 0 0 1 0
0.11595922 0.063363455 2.3912656 0 0 1 0
0.11690408 0.06346067 2.3949344 1 0 0 0
0.11690408 0.06346067 2.3949344 1 0 0 0
0.12150578 0.063460678 2.3949344 0.98644483 -4.9788628e-07 0.16409323 7.9560442e-10
0.12150578 0.063460678 2.3949344 0.98644483 -4.9788628e-07 0.16409323 7.9560442e-10
0.12303968 0.063460678 2.3949344 -0.9886235 3.7053173e-06 0.15041146 7.9560442e-10
0.13131356 0.063754104 2.406008 0 0 1 0
0.13228795 0.063852519 2.4097221 0 0 1 0
0.13228795 0.063852519 2.4097221 0 0 1 0
0.13377698 0.063460678 2.3949344 0 0 1 0
0.13377698 0.063460678 2.3949344 0 0 1 0
0.13607784 0.06346067 2.3949344 0 0 1 0
0.13846143 0.063852519 2.4097221 0 0 1 0
0.13846143 0.063852519 2.4097221 0 0 1 0
0.1437573 0.064149588 2.4209335 -0.20492773 1.7620201e-05 0.97877711 7.2215363e-09
0.14453256 0.064149596 2.4209332 -0.24054661 3.2128573e-05 0.97063756 7.2215363e-09
0.14453256 0.064149596 2.4209332 -0.24054661 3.2128573e-05 0.97063756 7.2215363e-09
0.14708649 0.06424924 2.4246938 -0 0 1 0
0.14708649 0.06424924 2.4246938 -0 0 1 0
0.15120375 0.064349189 2.4284658 0 0 1 0
nan nan nan nan nan nan 0
0.15865938 0.064853646 2.4475033 0.94845414 -1.4977492e-05 0.31691438 5.1193241e-09
0.15944315 0.064853646 2.4475033 -0.95225847 1.7137287e-06 0.30529293 5.1193241e-09
0.16047853 0.064955473 2.4513466 0 0 1 0
0.16047853 0.064955473 2.4513466 0 0 1 0
-0.014672009 0.066156045 2.4668415 -0.0026041341 0.00010536597 -0.9999966 0
-0.014672009 0.066156045 2.4668415 -0.0026041341 0.00010536597 -0.9999966 0
-0.0083127785 0.065843895 2.4552023 -0.000976521 0.00039490359 0.99999946 0
-0.0083127785 0.065843895 2.4552023 -0.000976521 0.00039490359 0.99999946 0
-0.0051435092 0.065534674 2.4436722 -3.8663995e-07 -2.7655292e-13 1 0
-0.0051435092 0.065534674 2.4436722 -3.8663995e-07 -2.7655292e-13 1 0
-0.00044607022 0.06522835 2.4322495 -0.99999493 -4.3833049e-07 0.0031738894 5.1334657e-09
0.00033282937 0.06522835 2.4322495 0.002613612 -9.0000925e-05 0.9999966 5.1334657e-09
0.0011152041 0.06543225 2.4398527 1 -0 -0 0
0.0065233698 0.064824343 2.4171848 -0 0 1 0
0.0073087621 0.064924866 2.4209332 -0 0 1 0
0.0073087621 0.064924866 2.4209332 -0 0 1 0
0.008859314 0.064924873 2.4209332 -0 0 1 0
0.008859314 0.064924873 2.4209332 -0 0 1 0
0.012715971 0.064824343 2.4171848 1 0 0 0
0.012715971 0.064824343 2.4171848 1 0 0 0
0.02340804 0.064425297 2.4023054 -0 0 1 0
0.02340804 0.064425297 2.4023054 -0 0 1 0
0.026363567 0.064129233 2.3912656 -0 0 1 0
0.026363567 0.064129233 2.3912656 -0 0 1 0
0.029476792 0.064227626 2.3949275 -0.0088538323 1.2010152e-13 -0.99996078 0
0.034787089 0.064129233 2.3912656 2.1091779e-05 -1.1208202e-05 1 1.430759e-09
0.035552867 0.064129233 2.3912656 8.1109505e-07 -3.0163371e-06 1 1.0444796e-09
0.037084419 0.064129233 2.3912656 -6.4317552e-05 1.40752e-06 1 6.4770028e-10
0.037084419 0.064129233 2.3912656 -6.4317552e-05 1.40752e-06 1 6.4770028e-10
0.04078833 0.063933365 2.3839619 -1.8043382e-07 -4.3074188e-16 -1 0
0.046132382 0.063933358 2.3839619 0.99705029 2.6331329e-06 0.076750882 2.4968929e-09
0.046132382 0.063933358 2.3839619 0.99705029 2.6331329e-06 0.076750882 2.4968929e-09
0.047586579 0.063835874 2.380327 0.99992442 4.4795129e-06 0.012295275 0
0.047586579 0.063835874 2.380327 0.99992442 4.4795129e-06 0.012295275 0
0.049186122 0.063933365 2.3839619 0.98046821 -6.0923744e-06 0.1966777 2.3110209e-09
nan nan nan nan nan nan 0
nan nan nan nan nan nan 0
0.056733839 0.063835874 2.3803267 0.99993134 -4.8867605e-07 -0.011717949 0
0.062069744 0.063835874 2.380327 0.99861664 3.183088e-06 0.052581728 4.4794652e-09
0.064356565 0.063835882 2.380327 -0.99894422 -1.2248886e-06 0.045939505 3.8189256e-09
0.064356565 0.063835882 2.380327 -0.99894422 -1.2248886e-06 0.045939505 3.8189256e-09
0.068064131 0.063738689 2.3767025 -0 0 1 0
0.068064131 0.063738689 2.3767025 -0 0 1 0
0.069586352 0.063738681 2.3767025 -0 0 1 0
0.071760438 0.063641787 2.3730896 -7.6296465e-06 -7.8676719e-16 1 0
0.071760438 0.063641787 2.3730896 -7.6296465e-06 -7.8676719e-16 1 0
0.076436356 0.063738681 2.3767025 0.98611259 -2.6012252e-05 0.16607817 4.1226818e-09
0.077958576 0.063738689 2.3767025 1.8726839e-06 -3.343802e-05 1 3.6405443e-09
0.077958576 0.063738689 2.3767025 1.8726839e-06 -3.343802e-05 1 3.6405443e-09
0.080241911 0.063738689 2.3767025 0.9991557 -8.3713476e-06 0.041084595 4.5414748e-09
0.080241911 0.063738689 2.3767025 0.9991557 -8.3713476e-06 0.041084595 4.5414748e-09
0.082399793 0.063641787 2.3730898 0.00015686243 0.0003137287 0.99999994 0
0.083919711 0.063641794 2.3730896 0.00015686119 0.00031372855 0.99999994 0
0.083919711 0.063641794 2.3730896 0.00015686119 0.00031372855 0.99999994 0
0.086859792 0.064129233 2.3912656 -1.2201987e-06 -1.9503227e-16 -1 0
0.089511529 0.063835874 2.3803267 -2.5955886e-05 -4.4084825e-16 -1 0
0.090688653 0.064129233 2.3912656 0 0 1 0
0.09560971 0.063835874 2.380327 0.040302508 2.4150881e-16 0.99918753 0
0.10262664 0.063933358 2.3839619 -0 0 1 0
0.10262664 0.063933358 2.3839619 -0 0 1 0
0.10568039 0.063933365 2.3839619 -0 0 1 0
0.10568039 0.063933365 2.3839619 -0 0 1 0
0.10873412 0.063933358 2.3839617 0.99951208 0 -0.031234752 0
0.10966504 0.064031154 2.3876083 1 0 -0 0
0.10966504 0.064031154 2.3876083 1 0 -0 0
0.11595923 0.064129233 2.3912656 0 0 1 0
0.11690408 0.064227626 2.3949344 -0 -0 1 0
0.11690408 0.064227626 2.3949344 -0 -0 1 0
0.12150579 0.064227626 2.3949344 0.98049146 -7.7262558e-07 0.1965618 1.0127532e-09
0.12150579 0.064227626 2.3949344 0.98049146 -7.7262558e-07 0.1965618 1.0127532e-09
0.12303967 0.064227626 2.3949342 -0.98290867 8.5868641e-07 0.18409395 1.0127532e-09
0.13151626 0.064624198 2.4097221 -0 0 1 0
0.13151626 0.064624198 2.4097221 -0 0 1 0
nan nan nan nan nan nan 0
nan nan nan nan nan nan 0
0.13607784 0.064227626 2.3949344 0 0 1 0
0.13846144 0.064624205 2.4097221 0 0 1 0
0.13846144 0.064624205 2.4097221 0 0 1 0
0.14375728 0.064924873 2.4209335 -0.21352786 1.777871e-05 0.976937 5.0283515e-09
0.14453255 0.064924873 2.4209332 -0.33437705 1.7018649e-05 0.94243938 5.0283515e-09
0.14453255 0.064924873 2.4209332 -0.33437705 1.7018649e-05 0.94243938 5.0283515e-09
0.14708649 0.065025717 2.4246938 -0 0 1 0
0.14708649 0.065025717 2.4246938 -0 0 1 0
nan nan nan nan nan nan 0
nan nan nan nan nan nan 0
0.15865937 0.065637425 2.4475033 0.91059422 1.0239406e-05 0.41330159 3.7489682e-09
0.15944314 0.065637425 2.4475033 -0.92037028 5.9368595e-06 0.39104804 3.7489682e-09
0.16047853 0.065740496 2.4513466 0 0 1 0
0.16047853 0.065740496 2.4513466 0 0 1 0
-0.014672006 0.066946022 2.4668417 0.99999917 3.929739e-07 -0.0013020822 0
-0.0082867108 0.066421203 2.4475033 -0 0 1 0
-0.0082867108 0.066421203 2.4475033 -0 0 1 0
-0.0067191431 0.066421211 2.4475033 -0 0 1 0
-0.0067191431 0.066421211 2.4475033 -0 0 1 0
-0.0051435097 0.06631723 2.4436722 1 8.9258089e-07 -9.6011347e-05 0
-0.0051435097 0.06631723 2.4436722 1 8.9258089e-07 -9.6011347e-05 0
-0.00044607022 0.066007249 2.4322498 -0.99999893 -3.8026758e-07 0.0014451882 8.7839043e-09
0.00033282937 0.066007249 2.4322498 0.0013915179 -0.000197678 0.99999899 8.7839043e-09
0.0011152041 0.066213578 2.4398525 1 -0 -0 0
0.0065233693 0.065598413 2.4171848 -0 0 1 0
0.0073315022 0.065904558 2.4284658 0 0 1 0
0.0080715194 0.065598413 2.4171848 -0 0 1 0
0.0080715194 0.065598413 2.4171848 -0 0 1 0
0.012715971 0.065598413 2.4171848 1 0 0 0
0.012715971 0.065598413 2.4171848 1 0 0 0
0.02340804 0.065194614 2.4023054 0 0 1 0
0.02340804 0.065194614 2.4023054 0 0 1 0
0.026363567 0.064895004 2.3912656 -0 0 1 0
0.026363567 0.064895004 2.3912656 -0 0 1 0
0.028704865 0.064994566 2.3949344 -0 0 1 0
0.034787089 0.064895004 2.3912656 8.0350903e-05 6.2053728e-06 1 7.8397155e-10
0.035552867 0.064895004 2.3912656 3.1608419e-05 1.1914275e-05 1 1.3246723e-09
0.037084419 0.064895011 2.3912656 -4.4498505e-05 2.9132023e-05 1 1.5031026e-09
0.037084419 0.064895011 2.3912656 -4.4498505e-05 2.9132023e-05 1 1.5031026e-09
0.040788732 0.064696804 2.3839617 -0.0026041539 -0.00031230866 -0.99999654 0
0.046132378 0.064696796 2.3839619 0.99932939 8.1192621e-07 0.036616094 2.8976941e-09
0.046132378 0.064696796 2.3839619 0.99932939 8.1192621e-07 0.036616094 2.8976941e-09
2.1100088e+09 -2062.3015 34.604797 -1.4813629e-08 0.00046916012 0.99999988 0
2.1100088e+09 -2062.3015 34.604797 -1.4813629e-08 0.00046916012 0.99999988 0
0.049186125 0.064696804 2.3839619 0.99908465 1.633322e-07 0.042776257 2.248012e-09
nan nan nan nan nan nan 0
nan nan nan nan nan nan 0
0.056733843 0.064598143 2.380327 0.021799015 4.761657e-11 0.99976236 0
0.062069748 0.064598151 2.380327 0.99852252 1.0281037e-06 0.054339059 4.3727413e-09
0.064356558 0.064598143 2.3803267 -0.99881315 -5.050527e-07 0.048705775 3.5931309e-09
0.064356558 0.064598143 2.3803267 -0.99881315 -5.050527e-07 0.048705775 3.5931309e-09
0.068064131 0.064499795 2.3767025 -0 0 1 0
0.068064131 0.064499795 2.3767025 -0 0 1 0
0.069586359 0.064499803 2.3767025 -0 0 1 0
0.071760438 0.064401746 2.3730898 1 0 0 0
0.071760438 0.064401746 2.3730898 1 0 0 0
0.076436363 0.064499803 2.3767028 0.98076242 -2.8130835e-05 0.19520535 3.7390713e-09
0.077958591 0.064499803 2.3767025 1.0119561e-05 -1.1470591e-05 1 3.0977558e-09
0.077958591 0.064499803 2.3767025 1.0119561e-05 -1.1470591e-05 1 3.0977558e-09
0.080241911 0.064499795 2.3767028 0.91112459 -2.7736131e-05 0.41213098 3.4860603e-09
0.080241911 0.064499795 2.3767028 0.91112459 -2.7736131e-05 0.41213098 3.4860603e-09
0.082399793 0.064401738 2.3730896 0.00015686304 0.00031372838 0.99999994 0
0.084551126 0.064303994 2.3694875 -0 -0 1 0
0.086859785 0.064895011 2.3912656 8.680483e-06 -3.0113332e-17 -1 0
0.089511529 0.064598143 2.3803267 -2.407084e-05 -9.9169991e-19 -1 0
0.090688661 0.064895011 2.3912656 0 0 1 0
0.095609702 0.064598143 2.3803267 -2.4070832e-05 2.5869485e-17 -1 0
0.10262664 0.064696804 2.3839619 0 0 1 0
0.10262664 0.064696804 2.3839619 0 0 1 0
0.1056804 0.064696804 2.3839619 0 0 1 0
0.1056804 0.064696804 2.3839619 0 0 1 0
0.10873413 0.064696804 2.3839619 -0.99913508 -1.4220203e-11 0.041582171 1.7006541e-09
0.10966504 0.064795755 2.3876081 1 0 -0 0
0.11578187 0.064795755 2.3876081 0 0 1 0
0.11672501 0.064895011 2.3912656 0 0 1 0
0.11672501 0.064895011 2.3912656 0 0 1 0
0.12150578 0.064994566 2.3949344 0.98217964 -1.8896319e-06 0.18794443 1.178327e-09
0.12150578 0.064994566 2.3949344 0.98217964 -1.8896319e-06 0.18794443 1.178327e-09
0.12303969 0.064994566 2.3949344 -0.98619425 5.8929612e-07 0.16559273 1.1783271e-09
0.13151626 0.065395892 2.4097221 -0 0 1 0
0.13607782 0.064994574 2.3949344 0 0 1 0
0.13846144 0.065395892 2.4097221 -0 0 1 0
0.13846144 0.065395892 2.4097221 -0 0 1 0
0.14375728 0.065700144 2.4209335 0.39883673 -1.537539e-06 0.91702193 4.8632853e-09
0.14453256 0.065700144 2.4209332 6.194444e-05 1.0256078e-05 1 3.8058339e-09
0.14453256 0.065700144 2.4209332 6.194444e-05 1.0256078e-05 1 3.8058339e-09
0.14708649 0.065802194 2.4246938 -0 0 1 0
0.14708649 0.065802194 2.4246938 -0 0 1 0
nan nan nan nan nan nan 0
nan nan nan nan nan nan 0
0.15865937 0.066421203 2.4475033 0.87018925 2.2133061e-05 0.49271762 3.722034e-09
0.15944313 0.066421203 2.4475033 -0.90468287 -1.2219505e-06 0.4260855 3.722034e-09
0.16047853 0.066525511 2.4513466 0 0 1 0
0.16047853 0.066525511 2.4513466 0 0 1 0
-0.014648857 0.067629129 2.4629498 -8.1866448e-05 7.557041e-05 1 1.3637885e-09
-0.0082867118 0.067204997 2.4475033 -0 0 1 0
-0.0082867118 0.067204997 2.4475033 -0 0 1 0
-0.0067191436 0.067204997 2.4475033 -0 0 1 0
-0.0067191436 0.067204997 2.4475033 -0 0 1 0
-0.0051435092 0.067099795 2.4436719 0.99995714 2.3365119e-06 0.0092582563 1.1412342e-09
-0.0051435092 0.067099795 2.4436719 0.99995714 2.3365119e-06 0.0092582563 1.1412342e-09
0.0057492941 0.066372491 2.4171848 -0 0 1 0
0.0073315026 0.066682249 2.4284658 0 0 1 0
0.0080715194 0.066372491 2.4171848 0 0 1 0
0.0080715194 0.066372491 2.4171848 0 0 1 0
0.02340804 0.065963924 2.4023054 0 0 1 0
0.02340804 0.065963924 2.4023054 0 0 1 0
0.028704863 0.065761521 2.3949344 0 0 1 0
0.034787092 0.065660782 2.3912656 7.6145363e-05 -7.6406968e-06 1 1.9003532e-09
0.035552863 0.065660782 2.3912656 3.8725233e-05 9.6838121e-06 1 1.6172519e-09
0.037084419 0.065660782 2.3912656 -1.9105973e-05 4.9952148e-05 1 1.9007893e-09
0.037084419 0.065660782 2.3912656 -1.9105973e-05 4.9952148e-05 1 1.9007893e-09
0.026183777 0.065460227 2.3840203 0.0039970493 7.8817249e-14 0.99999201 0
0.046132378 0.065460235 2.3839619 0.99946779 2.7503017e-07 0.032621663 3.5892564e-09
0.046132378 0.065460235 2.3839619 0.99946779 2.7503017e-07 0.032621663 3.5892564e-09
0.047659252 0.065460235 2.3839617 -1.3221561e-05 7.0750875e-06 1 2.5431279e-09
0.047659252 0.065460235 2.3839617 -1.3221561e-05 7.0750875e-06 1 2.5431279e-09
0.049186125 0.065460235 2.3839619 0.99932319 7.0382379e-07 0.03678542 2.7004878e-09
0.054957893 0.065062791 2.3694875 -0 0 1 0
0.054957893 0.065062791 2.3694875 -0 0 1 0
0.056733843 0.065360419 2.3803267 2.0838272e-06 4.8928207e-16 -1 0
0.062069744 0.065360412 2.380327 -0.97770607 -1.9762258e-06 0.20997812 3.6499761e-09
0.064356558 0.065360419 2.3803267 -0.9988898 8.7384478e-07 0.047107581 4.2556678e-09
0.064356558 0.065360419 2.3803267 -0.9988898 8.7384478e-07 0.047107581 4.2556678e-09
0.068064131 0.065260909 2.3767025 0 0 1 0
0.068064131 0.065260909 2.3767025 0 0 1 0
0.069586359 0.065260909 2.3767025 0 0 1 0
0.071760438 0.065161698 2.3730898 0.015625037 -3.1558252e-20 0.99987793 0
0.071760438 0.065161698 2.3730898 0.015625037 -3.1558252e-20 0.99987793 0
0.075790636 0.065360419 2.3803267 0.99987793 -4.8864877e-06 -0.015623016 0
0.077958591 0.065260909 2.3767025 1.7064371e-05 3.4094479e-05 1 2.7590397e-09
0.077958591 0.065260909 2.3767025 1.7064371e-05 3.4094479e-05 1 2.7590397e-09
0.080879882 0.065161698 2.3730896 0.00015686505 0.00031372855 0.99999994 0
0.080879882 0.065161698 2.3730896 0.00015686505 0.00031372855 0.99999994 0
0.08328636 0.065260909 2.3767025 0 0 1 0
0.085569695 0.065260909 2.3767025 0 0 1 0
0.086859792 0.06566079 2.3912656 -0 0 1 0
0.089511536 0.065360419 2.380327 0.047992077 4.8632093e-05 0.99884772 0
0.090688661 0.065660782 2.3912656 0 0 1 0
0.095609702 0.065360419 2.3803267 -8.2845963e-06 3.1335703e-17 -1 0
0.10262664 0.065460235 2.3839619 0 0 1 0
0.10262664 0.065460235 2.3839619 0 0 1 0
0.10568039 0.065460235 2.3839619 -0 0 1 0
0.10568039 0.065460235 2.3839619 -0 0 1 0
0.10873413 0.065460235 2.3839619 -0.99806225 -8.8767136e-12 0.062222935 1.9904094e-09
0.10966504 0.065560356 2.3876081 1 0 -0 0
0.11501727 0.065560356 2.3876081 -0 0 1 0
0.11578187 0.065560356 2.3876081 -0 0 1 0
0.11578187 0.065560356 2.3876081 -0 0 1 0
0.11731108 0.065560356 2.3876081 -0 0 1 0
0.11731108 0.065560356 2.3876081 -0 0 1 0
0.12150578 0.065761521 2.3949344 0.97708583 -6.9201951e-07 0.21284576 8.7537422e-10
0.12150578 0.065761521 2.3949344 0.97708583 -6.9201951e-07 0.21284576 8.7537422e-10
0.12303969 0.065761521 2.3949344 5.2966137e-05 -2.6551768e-05 1 7.5986067e-10
0.13151626 0.066167571 2.4097221 -0 0 1 0
0.13151626 0.066167571 2.4097221 -0 0 1 0
0.13305964 0.066167571 2.4097221 -0 0 1 0
0.13607784 0.065761521 2.3949344 -0 0 1 0
0.13846144 0.066167578 2.4097221 -0 0 1 0
0.13846144 0.066167578 2.4097221 -0 0 1 0
0.1437573 0.066475429 2.4209332 0.93092507 3.5949779e-06 0.36521029 5.8984284e-09
0.14453256 0.066475429 2.4209332 7.0014779e-05 2.887545e-06 1 4.64181e-09
0.14453256 0.066475429 2.4209332 7.0014779e-05 2.887545e-06 1 4.64181e-09
0.1470865 0.066578671 2.4246938 0 0 1 0
0.1470865 0.066578671 2.4246938 0 0 1 0
nan nan nan nan nan nan 0
nan nan nan nan nan nan 0
0.15865937 0.067204997 2.4475031 -0.00051210501 9.7181273e-06 0.99999988 3.2578309e-09
0.15944315 0.067204997 2.4475033 0.00028132027 -7.2232389e-05 0.99999994 3.2578309e-09
0.16047855 0.067310527 2.4513466 0 0 1 0
0.16047855 0.067310527 2.4513466 0 0 1 0
-0.013860125 0.068417862 2.4629498 -0.00015114123 0.00015114088 1 0
-0.013860125 0.068417862 2.4629498 -0.00015114123 0.00015114088 1 0
-0.0082867118 0.067988776 2.4475033 -0 0 1 0
-0.0082867118 0.067988776 2.4475033 -0 0 1 0
-0.005135471 0.067776248 2.4398525 0 0 1 0
-0.005135471 0.067776248 2.4398525 0 0 1 0
0.0057492945 0.067146569 2.4171848 0 0 1 0
0.0073315026 0.067459941 2.4284658 0 0 1 0
0.014220084 0.066939265 2.4097221 0 0 1 0
0.023408039 0.066733234 2.4023054 -0 0 1 0
0.023408039 0.066733234 2.4023054 -0 0 1 0
0.028704865 0.066528462 2.3949344 0 0 1 0
0.034787092 0.06642656 2.3912656 6.2637097e-05 -1.6267271e-05 1 2.1826161e-09
0.035552867 0.06642656 2.3912656 4.4847737e-05 7.2311436e-06 1 1.8758379e-09
0.037084419 0.06642656 2.3912656 3.4898294e-05 7.331463e-05 1 2.2856785e-09
0.037084419 0.06642656 2.3912656 3.4898294e-05 7.331463e-05 1 2.2856785e-09
0.040788326 0.066223666 2.3839619 0.99996012 1.2547158e-06 -0.0089281928 0
0.046132382 0.066223674 2.3839617 0.99952507 1.9877928e-07 0.030816736 3.8702073e-09
0.046132382 0.066223674 2.3839617 0.99952507 1.9877928e-07 0.030816736 3.8702073e-09
0.047659252 0.066223674 2.3839617 -1.4106146e-05 -1.6080177e-10 1 2.7566509e-09
0.047659252 0.066223674 2.3839617 -1.4106146e-05 -1.6080177e-10 1 2.7566509e-09
0.049186122 0.066223674 2.3839619 0.99948567 6.6853949e-07 0.032068521 2.8947051e-09
0.054957893 0.065821588 2.3694875 0 0 1 0
0.054957893 0.065821588 2.3694875 0 0 1 0
0.056733839 0.066122688 2.3803267 -9.6240719e-08 -4.3824539e-14 -1 0
0.062069744 0.066122688 2.380327 -0.99940246 -2.1598721e-06 0.034565184 4.5419895e-09
0.064356558 0.066122688 2.3803267 -0.99752069 4.6121363e-06 0.070373766 5.0598699e-09
0.064356558 0.066122688 2.3803267 -0.99752069 4.6121363e-06 0.070373766 5.0598699e-09
0.068064131 0.066022016 2.3767025 0 0 1 0
0.068064131 0.066022016 2.3767025 0 0 1 0
0.069586352 0.066022016 2.3767025 0 0 1 0
0.071760438 0.065921657 2.3730898 0.013021102 1.2773663e-14 0.99991524 0
0.071760438 0.065921657 2.3730898 0.013021102 1.2773663e-14 0.99991524 0
0.075790644 0.066122696 2.3803267 -6.9505666e-05 1.71352e-10 1 3.7055907e-09
0.077958576 0.066022016 2.3767025 5.7480105e-05 5.5998844e-05 1 3.0128748e-09
0.077958576 0.066022016 2.3767025 5.7480105e-05 5.5998844e-05 1 3.0128748e-09
0.080241911 0.066022016 2.3767025 0.96194643 2.1275251e-05 0.27323821 3.1732432e-09
0.080241911 0.066022016 2.3767025 0.96194643 2.1275251e-05 0.27323821 3.1732432e-09
0.083033524 0.065821588 2.3694875 -0 -0 1 0
0.085569695 0.066022016 2.3767025 0 0 1 0
0.086859785 0.06642656 2.3912656 -0 0 1 0
0.089511536 0.066122688 2.3803267 4.6161795e-06 2.2557569e-11 -1 0
0.090688661 0.06642656 2.3912656 0 0 1 0
0.095609702 0.066122688 2.3803267 -1.9675059e-05 -2.0072664e-16 -1 0
0.10262665 0.066223674 2.3839619 0 0 1 0
0.10262665 0.066223674 2.3839619 0 0 1 0
0.10568038 0.066223674 2.3839619 -0 0 1 0
0.10568038 0.066223674 2.3839619 -0 0 1 0
0.10873413 0.066223674 2.3839619 0.93262398 -4.4375965e-06 0.36084977 2.5629787e-09
0.10966504 0.066324957 2.3876081 1 0 -0 0
0.10966504 0.066324957 2.3876081 1 0 -0 0
nan nan nan nan nan nan 0
0.11578187 0.066324957 2.3876081 -0 0 1 0
0.11578187 0.066324957 2.3876081 -0 0 1 0
0.11749078 0.06642656 2.3912656 0 0 1 0
0.11749078 0.06642656 2.3912656 0 0 1 0
0.12303968 0.066528462 2.3949344 -5.6345365e-05 -2.0953698e-06 1 1.3176072e-09
0.13224307 0.066528462 2.3949344 0 0 1 0
0.13224307 0.066528462 2.3949344 0 0 1 0
nan nan nan nan nan nan 0
nan nan nan nan nan nan 0
0.13607784 0.066528469 2.3949344 -0 -0 1 0
0.13846143 0.066939265 2.4097221 -0 0 1 0
0.13846143 0.066939265 2.4097221 -0 0 1 0
0.14375728 0.067250691 2.4209335 -0.21087421 2.202728e-05 0.97751319 7.9442355e-09
0.14453256 0.067250691 2.4209332 5.55388e-05 5.1143115e-06 1 4.3231134e-09
0.14453256 0.067250691 2.4209332 5.55388e-05 5.1143115e-06 1 4.3231134e-09
0.14685838 0.067250691 2.4209332 -0.99916309 -2.0580654e-05 0.040903751 4.5316435e-09
0.14685838 0.067250691 2.4209332 -0.99916309 -2.0580654e-05 0.040903751 4.5316435e-09
nan nan nan nan nan nan 0
nan nan nan nan nan nan 0
0.15865935 0.067988776 2.4475031 -0.00028624912 -2.2828317e-05 0.99999994 2.8343401e-09
0.15944314 0.067988776 2.4475033 4.6258836e-05 -4.2837433e-05 1 2.8343401e-09
0.16047855 0.068095542 2.4513466 0 0 1 0
0.16047855 0.068095542 2.4513466 0 0 1 0
0.16491345 0.068634428 2.470746 0 0 1 0
0.16807835 0.068634428 2.470746 -0.00030131824 -0.00030131824 0.99999988 0
-0.006698139 0.06855759 2.4398525 0 0 1 0
-0.006698139 0.06855759 2.4398525 0 0 1 0
-0.005135471 0.06855759 2.4398525 0 0 1 0
-0.005135471 0.06855759 2.4398525 0 0 1 0
nan nan nan nan nan nan 0
nan nan nan nan nan nan 0
0.0065233698 0.06792064 2.4171848 0 0 1 0
0.0073315022 0.068237625 2.4284658 0 0 1 0
0.02340804 0.067502543 2.4023054 -0 0 1 0
0.02340804 0.067502543 2.4023054 -0 0 1 0
0.028704865 0.067295417 2.3949344 0 0 1 0
0.034787089 0.067192338 2.3912656 3.6523194e-05 -2.1049682e-05 1 2.2646398e-09
0.035552867 0.067192338 2.3912656 5.2443294e-05 7.2952612e-06 1 2.0234217e-09
0.037084416 0.067192331 2.3912654 0.00013323314 0.00010502927 1 2.533709e-09
0.037084416 0.067192331 2.3912654 0.00013323314 0.00010502927 1 2.533709e-09
0.040788326 0.066987105 2.3839619 1 0 0 0
0.046132382 0.066987105 2.3839617 0.99978191 -8.5125272e-08 0.020884776 3.589262e-09
0.046132382 0.066987105 2.3839617 0.99978191 -8.5125272e-08 0.020884776 3.589262e-09
0.047659248 0.066987105 2.3839617 -1.3221204e-05 -7.075243e-06 1 2.5431297e-09
0.047659248 0.066987105 2.3839617 -1.3221204e-05 -7.075243e-06 1 2.5431297e-09
0.049186122 0.066987105 2.3839619 0.99983567 4.1610582e-07 0.018128281 2.7004869e-09
0.054957893 0.066580392 2.3694875 0 0 1 0
0.054957893 0.066580392 2.3694875 0 0 1 0
0.056733843 0.066884965 2.3803267 -1.8791704e-09 -2.0715364e-15 1 0
0.062069744 0.066884965 2.380327 -0.99991393 -2.1710989e-06 0.013122123 5.7484195e-09
0.064356558 0.066884965 2.3803267 0.0052485685 0.00024119453 0.99998617 6.5862995e-09
0.064356558 0.066884965 2.3803267 0.0052485685 0.00024119453 0.99998617 6.5862995e-09
0.068064131 0.06678313 2.3767025 0 0 1 0
0.068064131 0.06678313 2.3767025 0 0 1 0
0.069586359 0.06678313 2.3767025 6.5884866e-05 -8.0292826e-05 1 7.235687e-10
0.071760386 0.066681601 2.3730896 -1.9264919e-08 -1.888697e-13 -1 0
0.071760386 0.066681601 2.3730896 -1.9264919e-08 -1.888697e-13 -1 0
0.075790644 0.066884965 2.3803267 -0.00034164122 0.00062554906 0.99999976 4.4757842e-09
0.077958591 0.066783138 2.3767025 4.1571901e-05 -0.0001282868 1 1.5298773e-09
0.077958591 0.066783138 2.3767025 4.1571901e-05 -0.0001282868 1 1.5298773e-09
0.080241911 0.066783138 2.3767025 -0.93632793 -1.833187e-05 0.35112673 1.2064763e-09
0.080241911 0.066783138 2.3767025 -0.93632793 -1.833187e-05 0.35112673 1.2064763e-09
0.083033524 0.066580392 2.3694875 -0 -0 1 0
0.085569687 0.06678313 2.3767025 0.97308797 -2.6705566e-06 0.2304339 1.319111e-09
0.086859785 0.067192331 2.3912656 -0 0 1 0
0.089511529 0.066884965 2.3803267 -1.3728984e-06 9.6445554e-17 -1 0
0.090688668 0.067192338 2.3912656 0 0 1 0
0.09560971 0.066884965 2.380327 0.0017857571 -6.4507755e-15 0.99999839 0
0.10262665 0.066987105 2.3839619 0 0 1 0
0.10262665 0.066987105 2.3839619 0 0 1 0
0.10568039 0.066987112 2.3839619 -0 0 1 0
0.10568039 0.066987112 2.3839619 -0 0 1 0
0.10873412 0.066987105 2.3839619 0.00019175197 1.279448e-09 1 1.6892466e-09
0.110261 0.066987105 2.3839617 0.00012054418 -0.0002766886 0.99999994 1.6892466e-09
0.11578187 0.067089565 2.3876081 -0 0 1 0
0.11578187 0.067089565 2.3876081 -0 0 1 0
0.11749078 0.067192338 2.3912656 0 0 1 0
0.11749078 0.067192338 2.3912656 0 0 1 0
0.12303969 0.067295417 2.3949344 -0.00011905266 4.5151766e-05 1 1.2333743e-09
nan nan nan nan nan nan 0
0.13607782 0.067295417 2.3949344 0 0 1 0
0.13846143 0.067710944 2.4097221 -0 0 1 0
0.13846143 0.067710944 2.4097221 -0 0 1 0
0.14375728 0.068025976 2.4209335 -0.99306226 7.0860715e-06 0.11758964 1.3383104e-08
0.14453255 0.068025969 2.4209332 1.644085e-05 0.00010600087 1 4.455436e-09
0.14453255 0.068025969 2.4209332 1.644085e-05 0.00010600087 1 4.455436e-09
0.14685838 0.068025969 2.4209335 -0.99871141 -4.6140981e-06 0.050749566 4.8532423e-09
0.14685838 0.068025969 2.4209335 -0.99871141 -4.6140981e-06 0.050749566 4.8532423e-09
nan nan nan nan nan nan 0
nan nan nan nan nan nan 0
0.15865937 0.068772562 2.4475033 -0.00024274451 -1.9238154e-05 1 2.2425812e-09
0.15894473 0.06855759 2.4398527 0.9980526 0 0.062378287 0
0.16047855 0.068880565 2.4513466 0 0 1 0
0.16047855 0.068880565 2.4513466 0 0 1 0
0.16807836 0.069425665 2.470746 -4.6358637e-05 2.3178663e-05 1 4.1084767e-09
-0.013860125 0.069995321 2.4629495 -5.9166749e-05 5.0380451e-05 1 2.5713431e-09
-0.013860125 0.069995321 2.4629495 -5.9166749e-05 5.0380451e-05 1 2.5713431e-09
-0.0067086248 0.069447465 2.4436719 -0.0013707745 -0.00045699763 0.99999893 3.8041565e-09
-0.0067086248 0.069447465 2.4436719 -0.0013707745 -0.00045699763 0.99999893 3.8041565e-09
-0.00044607022 0.069122851 2.4322495 1 -0 -0 0
0.00033491669 0.069556348 2.4475031 1 7.0250592e-09 1.4296504e-05 0
0.0011099994 0.069015309 2.4284658 0.99999994 4.2769738e-08 -0.00041852627 0
nan nan nan nan nan nan 0
nan nan nan nan nan nan 0
0.0072974446 0.068694718 2.4171848 0 0 1 0
0.0080715194 0.068694718 2.4171848 0 0 1 0
0.008859314 0.068801254 2.4209332 0.9999944 3.4322161e-07 -0.0033481994 0
0.013469189 0.068588503 2.4134479 0 0 1 0
0.023444118 0.068377078 2.406008 0 0 1 0
0.023444118 0.068377078 2.406008 0 0 1 0
nan nan nan nan nan nan 0
nan nan nan nan nan nan 0
0.028704863 0.068062373 2.3949344 -4.2687512e-05 2.5980042e-05 1 1.162869e-09
0.029471813 0.068062373 2.3949344 1.412859e-05 -7.505455e-06 1 1.162869e-09
0.030238764 0.068062373 2.3949344 7.1423055e-05 -3.7353882e-05 1 1.162869e-09
0.030238764 0.068062373 2.3949344 7.1423055e-05 -3.7353882e-05 1 1.162869e-09
0.034787089 0.067958109 2.3912656 2.1375577e-05 -1.5122778e-05 1 2.3015536e-09
0.035552867 0.067958117 2.3912656 7.4579228e-05 1.8019919e-05 1 2.2706188e-09
0.039201591 0.067647234 2.3803267 0 0 -1 0
0.04218635 0.067544244 2.3767025 0 0 1 0
0.046132378 0.067750543 2.3839619 0.99927467 -7.9715443e-07 0.038080979 2.8977012e-09
0.046132378 0.067750543 2.3839619 0.99927467 -7.9715443e-07 0.038080979 2.8977012e-09
0.047586579 0.067647234 2.3803267 1 0 -0 0
0.047586579 0.067647234 2.3803267 1 0 -0 0
0.049186122 0.067750543 2.3839619 0.99908966 3.5379241e-08 0.042660091 2.2480133e-09
0.054957889 0.067339189 2.3694875 0 0 1 0
0.054957889 0.067339189 2.3694875 0 0 1 0
0.056733839 0.067647234 2.3803267 8.725109e-07 -5.7767528e-17 1 0
nan nan nan nan nan nan 0
0.068272017 0.067750543 2.3839619 0 0 1 0
0.071760416 0.06744156 2.3730896 -0.015622778 -7.7126773e-05 0.99987793 0
0.071760416 0.06744156 2.3730896 -0.015622778 -7.7126773e-05 0.99987793 0
0.07807745 0.067647234 2.380327 -0.99972546 9.7714683e-06 0.023430707 4.7414592e-09
0.07807745 0.067647234 2.380327 -0.99972546 9.7714683e-06 0.023430707 4.7414592e-09
0.08328636 0.067544244 2.3767025 0.97153777 -1.5586893e-07 0.23688482 1.2073366e-09
0.085569687 0.067544237 2.3767025 -0.98743021 -3.7190714e-06 0.15805575 1.3926392e-09
0.086859785 0.067958109 2.3912656 -0 0 1 0
0.089511529 0.067647234 2.3803267 -2.6365943e-10 -6.35849e-16 -1 0
0.090688661 0.067958109 2.3912656 -0 0 1 0
0.09560971 0.067647241 2.3803267 7.3881967e-07 -8.8670941e-15 -1 0
0.09560971 0.067647241 2.3803267 7.3881967e-07 -8.8670941e-15 -1 0
0.10323242 0.067647234 2.3803267 0.99805409 -9.7563625e-06 0.062353875 0
0.10323242 0.067647234 2.3803267 0.99805409 -9.7563625e-06 0.062353875 0
0.10568038 0.067750543 2.3839619 -0 0 1 0
0.10568038 0.067750543 2.3839619 -0 0 1 0
0.10873413 0.067750543 2.3839619 0.00016652557 2.0552315e-11 1 1.6668404e-09
nan nan nan nan nan nan 0
nan nan nan nan nan nan 0
0.11102444 0.067750551 2.3839619 -0.00046844789 3.2980447e-09 0.99999988 1.9149509e-09
0.11501727 0.067854166 2.3876081 -0 0 1 0
0.11542878 0.067647241 2.380327 1 0 0 0
0.11713197 0.067750543 2.3839619 0.0089282813 -2.8809788e-07 -0.99996012 0
0.11713197 0.067750543 2.3839619 0.0089282813 -2.8809788e-07 -0.99996012 0
0.12150579 0.068062373 2.3949344 0.00018111859 4.7327433e-07 1 1.5268641e-09
0.12150579 0.068062373 2.3949344 0.00018111859 4.7327433e-07 1 1.5268641e-09
0.12303969 0.068062373 2.3949344 -7.2703566e-05 4.6332683e-05 1 1.7435723e-09
0.12380663 0.068062373 2.3949344 -0.00019710862 7.2926567e-05 1 2.6781553e-09
nan nan nan nan nan nan 0
nan nan nan nan nan nan 0
nan nan nan nan nan nan 0
0.13691805 0.06848263 2.4097221 -0 0 1 0
0.14331278 0.06858851 2.4134479 -0 -0 1 0
0.14430876 0.068694711 2.4171848 -0 0 1 0
0.14430876 0.068694711 2.4171848 -0 0 1 0
0.14685838 0.068801247 2.4209335 -0.99623901 -1.9787421e-06 0.086647466 2.8021563e-09
0.14685838 0.068801247 2.4209335 -0.99623901 -1.9787421e-06 0.086647466 2.8021563e-09
nan nan nan nan nan nan 0
0.15894474 0.069338918 2.4398525 0.9980526 0 0.062378287 0
0.16022693 0.069556341 2.4475033 0.00037829878 2.4117346e-06 0.99999994 2.6836109e-09
0.16022693 0.069556341 2.4475033 0.00037829878 2.4117346e-06 0.99999994 2.6836109e-09
0.16649589 0.070216887 2.470746 0.70487851 -0.70487189 0.079384387 1.5316612e-09
0.16649589 0.070216887 2.470746 0.70487851 -0.70487189 0.079384387 1.5316612e-09
0.16781275 0.070105933 2.4668415 0.0001509078 1.1386471e-08 1 0
-0.0067086248 0.07023003 2.4436722 -1 -1.1728484e-08 2.7641159e-05 6.1262191e-09
-0.0067086248 0.07023003 2.4436722 -1 -1.1728484e-08 2.7641159e-05 6.1262191e-09
-0.0043541365 0.070120245 2.4398525 -8.9981069e-05 -0.00022028407 1 1.7226919e-09
-0.0043541365 0.070120245 2.4398525 -8.9981069e-05 -0.00022028407 1 1.7226919e-09
-0.00044607022 0.069901749 2.4322498 1 -0 -0 0
0.00033491669 0.070340134 2.4475033 1 1.1477297e-08 -1.1097303e-05 0
0.0011099993 0.069793001 2.4284656 0.99999994 1.2830976e-08 -0.00041852682 0
0.0072974451 0.069468796 2.4171848 9.1916911e-05 -2.8105345e-05 1 1.4119605e-09
0.0080715194 0.069468789 2.4171848 -0.00011608063 1.3691947e-05 1 2.0350133e-09
0.0088593131 0.069576524 2.4209332 0.99999571 2.4025508e-07 -0.0029296768 0
0.01346919 0.069361389 2.4134479 0 0 1 0
0.01346919 0.069361389 2.4134479 0 0 1 0
0.014991769 0.069254316 2.4097221 0 0 1 0
0.02344412 0.069147572 2.406008 -0 0 1 0
0.02344412 0.069147572 2.406008 -0 0 1 0
nan nan nan nan nan nan 0
nan nan nan nan nan nan 0
0.028704865 0.06882932 2.3949344 -7.5348544e-05 2.4841871e-05 1 1.3350712e-09
0.029471811 0.068829313 2.3949344 -2.0768419e-05 7.5816215e-06 1 1.3350712e-09
0.030238764 0.06882932 2.3949344 3.4839937e-05 -8.257015e-06 1 1.3350712e-09
0.030238764 0.06882932 2.3949344 3.4839937e-05 -8.257015e-06 1 1.3350712e-09
0.034787089 0.068723887 2.3912656 -5.1890715e-05 -2.3337929e-11 1 5.6154187e-10
0.035552867 0.068723887 2.3912656 9.786366e-05 3.7147245e-05 1 1.3252536e-09
0.037792299 0.068618767 2.3876078 0.99987793 0 -0.015623093 0
0.04218635 0.068305351 2.3767025 0 0 1 0
0.046132378 0.068513975 2.3839619 -0.99875921 -1.43938e-06 0.049800083 2.4969031e-09
0.046132378 0.068513975 2.3839619 -0.99875921 -1.43938e-06 0.049800083 2.4969031e-09
0.047586579 0.06840951 2.380327 2.6087147e-08 -0.00010081486 -1 0
0.047586579 0.06840951 2.380327 2.6087147e-08 -0.00010081486 -1 0
0.049186122 0.068513975 2.3839619 0.00015613838 2.4788487e-15 1 1.7092832e-09
0.054957896 0.068097994 2.3694875 0 0 1 0
0.054957896 0.068097994 2.3694875 0 0 1 0
0.056733839 0.06840951 2.380327 0.010416525 3.5148791e-12 -0.99994576 0
nan nan nan nan nan nan 0
nan nan nan nan nan nan 0
0.068272024 0.068513975 2.3839619 0 0 1 0
0.071108572 0.068305351 2.3767025 -0.99480402 1.0369117e-06 0.10180862 1.4141676e-09
0.07807745 0.068409503 2.3803267 -0.99946958 5.7132943e-06 0.032566015 4.3044279e-09
0.07807745 0.068409503 2.3803267 -0.99946958 5.7132943e-06 0.032566015 4.3044279e-09
0.08328636 0.068305358 2.3767025 0.98835152 -1.5903971e-06 0.15218823 1.635434e-09
0.085569695 0.068305351 2.3767025 -0.99341816 -5.2309173e-07 0.11454426 1.4348539e-09
nan nan nan nan nan nan 0
0.089511529 0.06840951 2.380327 0.0241728 -7.8741593e-08 0.99970782 0
0.090384103 0.06872388 2.3912644 -0.0041665849 8.4773727e-14 0.9999913 0
0.09560971 0.06840951 2.3803267 3.02578e-06 2.9892883e-16 -1 0
0.09560971 0.06840951 2.3803267 3.02578e-06 2.9892883e-16 -1 0
0.10323243 0.06840951 2.3803267 0.9980526 -9.7550901e-06 0.062378068 0
0.10323243 0.06840951 2.3803267 0.9980526 -9.7550901e-06 0.062378068 0
0.10568038 0.068513982 2.3839619 0 0 1 0
0.10568038 0.068513982 2.3839619 0 0 1 0
0.10873412 0.068513975 2.3839619 0.00026639181 -2.2684442e-06 0.99999994 1.0005131e-09
nan nan nan nan nan nan 0
nan nan nan nan nan nan 0
0.11501727 0.068618767 2.3876081 -0 0 1 0
0.11542878 0.06840951 2.3803267 0.99998385 -1.777096e-06 -0.0056817038 0
0.11710357 0.068513982 2.3839614 0.015623154 1.2862591e-13 -0.99987793 0
0.11710357 0.068513982 2.3839614 0.015623154 1.2862591e-13 -0.99987793 0
0.12150579 0.06882932 2.3949344 0.00016753835 1.7992272e-05 1 2.3286597e-09
0.12150579 0.06882932 2.3949344 0.00016753835 1.7992272e-05 1 2.3286597e-09
0.12303968 0.068829313 2.3949344 -2.3415259e-05 4.0765073e-05 1 2.360323e-09
0.12380663 0.06882932 2.3949344 -0.0001173768 7.0913637e-05 1 2.7437865e-09
0.13167815 0.068935081 2.3986142 0 0 1 0
nan nan nan nan nan nan 0
nan nan nan nan nan nan 0
0.13691805 0.069254316 2.4097221 -0 0 1 0
0.14353469 0.069468789 2.4171848 -0 0 1 0
0.14430875 0.069468789 2.4171848 -0 0 1 0
0.14430875 0.069468789 2.4171848 -0 0 1 0
0.14685838 0.069576524 2.4209335 -0.99999988 6.0414642e-09 0.00053974043 4.1174473e-09
0.14685838 0.069576524 2.4209335 -0.99999988 6.0414642e-09 0.00053974043 4.1174473e-09
nan nan nan nan nan nan 0
0.15894473 0.070120253 2.4398527 0.9980526 0 0.062378287 0
0.16022693 0.070340127 2.4475033 0.00040866807 6.108942e-05 0.99999994 3.1723135e-09
0.16022693 0.070340127 2.4475033 0.00040866807 6.108942e-05 0.99999994 3.1723135e-09
0.16623281 0.07089591 2.4668417 0.0001509078 5.6930767e-09 1 0
0.16623281 0.07089591 2.4668417 0.0001509078 5.6930767e-09 1 0
-0.015437588 0.071572788 2.4629498 0.67766052 0.73413515 0.042683072 5.4389099e-10
-0.015437588 0.071572788 2.4629498 0.67766052 0.73413515 0.042683072 5.4389099e-10
-0.009838854 0.071012571 2.4436719 0 0 -1 0
-0.0067086248 0.071012579 2.4436722 -1 4.2193324e-09 0.00023728907 6.0334164e-09
-0.0067086248 0.071012579 2.4436722 -1 4.2193324e-09 0.00023728907 6.0334164e-09
-0.0043541365 0.070901588 2.4398525 1 -1.1615846e-08 0.00017598152 3.0823326e-09
-0.0043541365 0.070901588 2.4398525 1 -1.1615846e-08 0.00017598152 3.0823326e-09
-0.00044607022 0.070680641 2.4322495 -0.77756596 6.683181e-05 0.62880141 2.8935256e-09
0.00033491667 0.071123913 2.4475033 1 1.1477297e-08 -1.1097303e-05 0
0.0011099994 0.070570685 2.4284658 0.99999994 1.2830976e-08 -0.00041852682 0
0.0072974451 0.070242867 2.4171848 1.5904518e-05 1.0517827e-05 1 1.2829967e-09
0.0080715194 0.070242867 2.4171848 6.7523382e-05 2.811191e-05 1 1.2829967e-09
0.008859314 0.070351802 2.4209335 0.0065338099 5.5073822e-05 0.99997866 0
0.011960417 0.070351802 2.4209335 0.99999237 0 -0.0039062202 0
0.02344412 0.069918074 2.406008 -0 0 1 0
0.024141282 0.069703199 2.3986142 -0.0022321502 7.2759407e-09 -0.9999975 0
0.024141282 0.069703199 2.3986142 -0.0022321502 7.2759407e-09 -0.9999975 0
0.028704863 0.069596268 2.3949344 -8.7545835e-05 1.3793205e-05 1 1.2138367e-09
0.029471813 0.069596268 2.3949344 -4.2151376e-05 -2.0242987e-06 1 1.2138367e-09
0.030238762 0.069596268 2.3949344 2.7337412e-06 -1.7619403e-05 1 1.2138367e-09
0.030238762 0.069596268 2.3949344 2.7337412e-06 -1.7619403e-05 1 1.2138367e-09
0.034787089 0.069489665 2.3912656 -0 0 1 0
0.035552867 0.069489658 2.3912656 5.1890685e-05 2.9646153e-21 1 5.0072291e-10
0.037792303 0.069383368 2.3876081 0.99987793 0 -0.015623093 0
0.041488405 0.069171779 2.3803267 0 0 1 0
0.041488405 0.069171779 2.3803267 0 0 1 0
0.046132378 0.069277413 2.3839619 -0.99852127 2.5706147e-06 0.054362223 1.3269346e-09
0.046132378 0.069277413 2.3839619 -0.99852127 2.5706147e-06 0.054362223 1.3269346e-09
0.047586579 0.069171779 2.3803267 0.00085236045 -1.2944391e-13 0.99999964 0
0.047586579 0.069171779 2.3803267 0.00085236045 -1.2944391e-13 0.99999964 0
0.049186125 0.069277421 2.3839619 3.642924e-09 2.5397787e-10 1 0
0.054957896 0.068856798 2.3694875 0 0 1 0
0.054957896 0.068856798 2.3694875 0 0 1 0
0.056733839 0.069171779 2.3803267 7.2095497e-07 -1.9706893e-16 1 0
nan nan nan nan nan nan 0
nan nan nan nan nan nan 0
0.068272024 0.069277413 2.3839619 0 0 1 0
0.07110858 0.069066465 2.3767025 -0.99461359 3.5337032e-06 0.10365228 1.7662797e-09
0.078077458 0.069171786 2.380327 -3.2566136e-06 -4.3932249e-15 -1 0
0.078077458 0.069171786 2.380327 -3.2566136e-06 -4.3932249e-15 -1 0
0.08328636 0.069066457 2.3767025 0.9946084 3.0385781e-08 0.1037019 1.4888074e-09
0.085569695 0.069066457 2.3767025 -0.99200064 2.6265504e-06 0.12623295 1.3090726e-09
nan nan nan nan nan nan 0
0.089511529 0.069171779 2.3803267 0.023435367 -2.4799816e-15 0.99972534 0
0.090688661 0.069489665 2.3912656 -6.6462312e-06 1.6827258e-16 1 0
0.09560971 0.069171779 2.380327 0.0061882716 -7.4905326e-15 0.99998087 0
0.09560971 0.069171779 2.380327 0.0061882716 -7.4905326e-15 0.99998087 0
0.10262665 0.069277413 2.3839619 -0 0 1 0
0.10262665 0.069277413 2.3839619 -0 0 1 0
0.10568039 0.069277421 2.3839619 -0 0 1 0
0.10568039 0.069277421 2.3839619 -0 0 1 0
0.10873413 0.069277413 2.3839619 0.00019180907 -2.5773652e-06 1 8.0738738e-10
nan nan nan nan nan nan 0
nan nan nan nan nan nan 0
0.11501727 0.069383368 2.3876081 -0 0 1 0
0.11542878 0.069171779 2.3803267 0.0091597326 -8.7076264e-17 0.99995804 0
0.11713193 0.069277413 2.3839617 0.0508467 3.3545036e-14 -0.99870646 0
0.11713193 0.069277413 2.3839617 0.0508467 3.3545036e-14 -0.99870646 0
0.12150578 0.069596276 2.3949344 0.00014091405 -5.9616391e-06 1 2.6991445e-09
0.12150578 0.069596276 2.3949344 0.00014091405 -5.9616391e-06 1 2.6991445e-09
0.12303968 0.069596268 2.3949342 -1.0610229e-05 2.6341453e-05 1 2.8104217e-09
0.12380663 0.069596268 2.3949344 -0.00010122918 4.4821561e-05 1 2.8104217e-09
0.13167815 0.069703206 2.3986142 0 0 1 0
nan nan nan nan nan nan 0
nan nan nan nan nan nan 0
0.13691805 0.070026003 2.4097221 -0 -0 1 0
0.14176701 0.07013426 2.4134479 -0 -0 1 0
0.14353469 0.070242867 2.4171848 -0 0 1 0
0.14430876 0.070242867 2.4171848 -0 0 1 0
0.14430876 0.070242867 2.4171848 -0 0 1 0
0.14685838 0.070351802 2.4209335 1.3001565e-05 -6.4523632e-18 -1 0
0.14685838 0.070351802 2.4209335 1.3001565e-05 -6.4523632e-18 -1 0
0.15120375 0.070570685 2.4284658 0 0 1 0
0.158411 0.071012571 2.4436719 -0.00027419723 3.0466619e-05 0.99999994 8.5493017e-09
0.15919356 0.071012579 2.4436722 -0.00027419723 3.0466619e-05 0.99999994 8.5493017e-09
0.16022693 0.071123913 2.4475033 0.013306807 3.4150598e-05 0.99991149 3.0314897e-09
0.16022693 0.071123913 2.4475033 0.013306807 3.4150598e-05 0.99991149 3.0314897e-09
0.16623279 0.07168588 2.4668417 -2.0323832e-05 -1.1499153e-09 1 0
0.16623279 0.07168588 2.4668417 -2.0323832e-05 -1.1499153e-09 1 0
0.16807835 0.071799345 2.470746 -0.00010430496 8.112588e-05 1 2.2386501e-10
-0.013860125 0.072361514 2.4629498 -0.99944723 -8.357091e-07 0.033245031 5.4389099e-10
-0.013860125 0.072361514 2.4629498 -0.99944723 -8.357091e-07 0.033245031 5.4389099e-10
-0.0098234769 0.071682923 2.4398527 0.99999237 0 0.0039062202 0
nan nan nan nan nan nan 0
nan nan nan nan nan nan 0
-0.0067086248 0.071795136 2.4436719 -1 2.5632727e-09 3.9668077e-05 4.8125943e-09
-0.0067086248 0.071795136 2.4436719 -1 2.5632727e-09 3.9668077e-05 4.8125943e-09
-0.0043541365 0.071682923 2.4398527 1 0 0 0
-0.0043541365 0.071682923 2.4398527 1 0 0 0
-0.00044607022 0.071459539 2.4322495 0.029221201 0.00022113118 0.99957293 4.0015662e-09
0.00033491667 0.071907699 2.4475031 1 1.1477297e-08 -1.1097303e-05 0
0.0011099994 0.071348377 2.4284658 0.99999994 1.2830976e-08 -0.00041852682 0
0.0072974451 0.071016937 2.4171848 -5.075754e-06 8.9447968e-07 1 1.462511e-09
0.0080715194 0.071016937 2.4171848 0.00017157321 4.4120181e-05 1 1.462511e-09
0.0088593131 0.071127072 2.4209332 -8.0303302e-09 6.8857198e-16 -1 0
0.011960416 0.071127072 2.4209332 0.99999237 0 -0.0039062202 0
nan nan nan nan nan nan 0
0.023444118 0.070688568 2.406008 -0 0 1 0
0.024140202 0.070471339 2.3986142 0.99978232 -1.2121019e-06 -0.020865098 0
0.024140202 0.070471339 2.3986142 0.99978232 -1.2121019e-06 -0.020865098 0
0.028704865 0.070363224 2.3949344 -0.00010502019 -8.6816108e-06 1 1.387645e-09
0.029471813 0.070363216 2.3949344 -7.6384262e-05 -3.6918977e-05 1 1.387645e-09
0.034787089 0.070255429 2.3912656 0 0 1 0
0.037792303 0.070147976 2.3876081 0.99987793 0 -0.015623093 0
0.042186353 0.069827579 2.3767025 -0 0 1 0
0.046132382 0.070040844 2.3839619 -6.4465266e-06 -6.4661733e-15 -1 0
0.046132382 0.070040844 2.3839619 -6.4465266e-06 -6.4661733e-15 -1 0
0.047596883 0.069934055 2.3803267 -1.0908718e-08 1.4106762e-14 1 0
0.047596883 0.069934055 2.3803267 -1.0908718e-08 1.4106762e-14 1 0
0.049186122 0.070040844 2.3839619 -0 0 1 0
0.054957893 0.069615595 2.3694875 0 0 1 0
0.054957893 0.069615595 2.3694875 0 0 1 0
0.056733843 0.06993404 2.3803267 -9.4849817e-08 -2.84423e-09 1 0
0.06501969 0.069827579 2.3767028 -0.017854277 0.00013658845 0.99984062 0
0.06501969 0.069827579 2.3767028 -0.017854277 0.00013658845 0.99984062 0
0.068064131 0.069827579 2.3767025 -0.99972433 3.7680302e-06 0.023479499 2.8863425e-09
0.069586359 0.069827572 2.3767025 -2.3206481e-05 -8.5464826e-06 1 2.34027e-09
0.069586359 0.069827572 2.3767025 -2.3206481e-05 -8.5464826e-06 1 2.34027e-09
0.07110858 0.069827579 2.3767025 -0.9897958 4.779838e-06 0.14249302 1.9752568e-09
0.07110858 0.069827579 2.3767025 -0.9897958 4.779838e-06 0.14249302 1.9752568e-09
0.07807745 0.06993404 2.3803267 0.008250827 -9.0922372e-09 0.99996597 0
0.07807745 0.06993404 2.3803267 0.008250827 -9.0922372e-09 0.99996597 0
0.08328636 0.069827579 2.3767025 0.66551352 5.5512459e-07 0.74638581 1.18161e-09
0.085569695 0.069827579 2.3767025 0.42711234 1.4281022e-05 0.90419859 1.268881e-09
nan nan nan nan nan nan 0
0.089511529 0.069934055 2.3803267 0.017191624 -2.7205486e-08 0.99985224 0
0.090688661 0.070255429 2.3912656 1 0 -0 0
0.09560971 0.069934055 2.3803267 1.2014533e-06 3.1652072e-12 -1 0
0.09560971 0.069934055 2.3803267 1.2014533e-06 3.1652072e-12 -1 0
0.10323243 0.069934055 2.380327 -0.0059522134 4.6820303e-05 -0.9999823 0
0.10323243 0.069934055 2.380327 -0.0059522134 4.6820303e-05 -0.9999823 0
0.10873414 0.070040852 2.3839619 0 0 1 0
nan nan nan nan nan nan 0
nan nan nan nan nan nan 0
0.11102445 0.070040852 2.3839619 -0 0 1 0
nan nan nan nan nan nan 0
0.11542878 0.069934055 2.380327 1.9073643e-06 -7.5560137e-18 -1 0
0.11713193 0.070040852 2.3839619 3.7382641e-05 -1.4872421e-17 1 0
0.11713193 0.070040852 2.3839619 3.7382641e-05 -1.4872421e-17 1 0
0.12150577 0.070363224 2.3949344 0.00016439882 -5.0601113e-07 1 3.0467424e-09
0.12150577 0.070363224 2.3949344 0.00016439882 -5.0601113e-07 1 3.0467424e-09
0.12303969 0.070363224 2.3949342 -1.039507e-05 9.0750145e-06 1 2.8900844e-09
0.12380663 0.070363216 2.3949344 -0.00011379474 1.7734388e-05 1 3.4271659e-09
0.13167815 0.070471339 2.3986142 0.00031358519 -1.3188891e-16 -0.99999994 0
nan nan nan nan nan nan 0
nan nan nan nan nan nan 0
0.14176701 0.070907146 2.4134479 0 0 1 0
0.14353469 0.071016937 2.4171848 0 0 1 0
0.14430876 0.071016937 2.4171848 0 0 1 0
0.14430876 0.071016937 2.4171848 0 0 1 0
0.14685839 0.071127079 2.4209335 -1.8120627e-05 -4.7644621e-19 -1 0
0.14685839 0.071127079 2.4209335 -1.8120627e-05 -4.7644621e-19 -1 0
0.15919356 0.071795136 2.4436722 -0.00027419723 3.0466619e-05 0.99999994 8.5493017e-09
0.16022693 0.071907699 2.4475031 0.089054331 0.00066480401 0.99602658 0
0.16022693 0.071907699 2.4475031 0.089054331 0.00066480401 0.99602658 0
0.16623281 0.072475865 2.4668417 -4.311667e-05 -8.132976e-10 1 0
0.16623281 0.072475865 2.4668417 -4.311667e-05 -8.132976e-10 1 0
0.16807833 0.072590567 2.470746 0 0 1 0
-0.013860125 0.073150247 2.4629498 0 0 1 0
-0.013860125 0.073150247 2.4629498 0 0 1 0
-0.0082737394 0.072577693 2.4436719 0.70710492 -0.70710218 0.003028743 4.2585389e-09
-0.0082737394 0.072577693 2.4436719 0.70710492 -0.70710218 0.003028743 4.2585389e-09
-0.0067086248 0.072577693 2.4436719 -0.99999923 -2.5901262e-08 0.0012434932 5.6027596e-09
-0.0067086248 0.072577693 2.4436719 -0.99999923 -2.5901262e-08 0.0012434932 5.6027596e-09
-0.0043541365 0.072464257 2.4398525 1 0 0 0
-0.0043541365 0.072464257 2.4398525 1 0 0 0
0.00033491667 0.072691485 2.4475033 1 1.0609253e-08 -1.7438711e-05 0
0.0011099994 0.072126061 2.4284658 0.99999994 2.3902226e-13 -0.00032552239 0
0.0072974446 0.071791016 2.4171848 3.5188757e-05 5.0939084e-06 1 1.7282414e-09
0.0080715194 0.071791016 2.4171848 0.00016354764 2.4097335e-05 1 1.7282414e-09
0.0088593131 0.07190235 2.4209332 0.0037554565 -7.2923106e-14 -0.99999297 0
0.011960416 0.07190235 2.4209332 0.99999237 0 -0.0039062202 0
0.015739158 0.071459062 2.406008 0.99996948 0 -0.0078122616 0
0.023444118 0.071459062 2.406008 5.8583834e-07 7.079026e-13 -1 0
0.0241402 0.071239457 2.3986139 0.0093909502 -1.132575e-15 0.99995589 0
0.028704865 0.071130164 2.3949344 -0.00016146577 -7.0217e-05 1 2.2024211e-09
0.029471815 0.071130171 2.3949344 -0.0001197142 -0.00010640792 1 2.2024211e-09
0.034787089 0.071021207 2.3912656 0 0 1 0
0.04218635 0.070588686 2.3767025 -0 0 1 0
0.046132382 0.070804283 2.3839619 -6.5748463e-07 -3.8521907e-16 -1 0
0.046132382 0.070804283 2.3839619 -6.5748463e-07 -3.8521907e-16 -1 0
0.047586583 0.070696317 2.3803267 -6.6727956e-08 -3.8273815e-15 1 0
0.047586583 0.070696317 2.3803267 -6.6727956e-08 -3.8273815e-15 1 0
0.049186122 0.07080429 2.3839619 -0 0 1 0
